ply
format ascii 1.0
element vertex 1132
property float x
property float y
property float z
property uchar red
property uchar green
property uchar blue
end_header
5.407407 9.185185 -18.133333 106 106 106 
5.444445 9.185185 -18.133333 106 106 106 
5.506977 9.227907 -18.217674 106 106 106 
5.557109 9.249417 -18.260139 106 106 106 
5.660378 9.358491 -18.475471 106 106 106 
5.738718 9.425179 -18.607126 106 106 106 
5.804296 9.470167 -18.695944 106 106 106 
5.870503 9.515588 -18.785612 106 106 106 
5.923077 9.538462 -18.830769 105 105 105 
5.975904 9.561446 -18.876144 106 106 106 
6.028986 9.584541 -18.921740 106 106 106 
6.067633 9.584541 -18.921740 105 105 105 
6.106280 9.584541 -18.921740 105 105 105 
6.144928 9.584541 -18.921740 105 105 105 
5.612903 8.000000 -15.793549 105 105 105 
5.645161 8.000000 -15.793549 104 104 104 
5.665996 7.983903 -15.761771 105 105 105 
5.686747 7.967872 -15.730121 105 105 105 
5.718875 7.967872 -15.730121 105 105 105 
5.751004 7.967872 -15.730121 104 104 104 
5.771543 7.951904 -15.698597 104 104 104 
5.792000 7.936000 -15.667200 105 105 105 
5.824000 7.936000 -15.667200 105 105 105 
5.856000 7.936000 -15.667200 104 104 104 
5.876247 7.920160 -15.635928 104 104 104 
5.908184 7.920160 -15.635928 104 104 104 
5.940120 7.920160 -15.635928 104 104 104 
5.984000 7.936000 -15.667200 104 104 104 
10.349835 13.095710 -25.853466 104 104 104 
10.368421 13.052631 -25.768421 104 104 104 
10.386886 13.009836 -25.683935 104 104 104 
10.405229 12.967320 -25.600000 104 104 104 
10.423452 12.925081 -25.516613 103 103 103 
10.441559 12.883117 -25.433767 103 103 103 
10.459547 12.841424 -25.351456 104 104 104 
10.443730 12.758842 -25.188425 104 104 104 
10.461538 12.717949 -25.107693 103 103 103 
10.512820 12.717949 -25.107693 102 102 102 
10.530352 12.677317 -25.027477 103 103 103 
10.547771 12.636943 -24.947771 103 103 103 
10.531646 12.556962 -24.789873 103 103 103 
10.582278 12.556962 -24.789873 102 102 102 
10.599369 12.517350 -24.711672 103 103 103 
10.649842 12.517350 -24.711672 102 102 102 
10.700315 12.517350 -24.711672 102 102 102 
10.716981 12.477987 -24.633963 102 102 102 
10.767296 12.477987 -24.633963 102 102 102 
10.817610 12.477987 -24.633963 102 102 102 
11.331147 13.009836 -25.683935 102 102 102 
11.496689 13.139072 -25.939074 102 102 102 
11.626667 13.226666 -26.112000 101 101 101 
11.680000 13.226666 -26.112000 102 102 102 
11.578947 13.052631 -25.768421 103 103 103 
11.631579 13.052631 -25.768421 102 102 102 
11.722773 13.095710 -25.853466 102 102 102 
11.775578 13.095710 -25.853466 103 103 103 
11.867550 13.139072 -25.939074 102 102 102 
11.960133 13.182724 -26.025249 102 102 102 
12.013289 13.182724 -26.025249 102 102 102 
12.187920 13.315436 -26.287249 102 102 102 
12.493151 13.589041 -26.827398 102 102 102 
15.625000 15.500000 -30.600000 100 100 100 
15.687500 15.500000 -30.600000 100 100 100 
15.750000 15.500000 -30.600000 99 99 99 
15.812500 15.500000 -30.600000 99 99 99 
15.875000 15.500000 -30.600000 99 99 99 
15.937500 15.500000 -30.600000 99 99 99 
16.000000 15.500000 -30.600000 100 100 100 
16.062500 15.500000 -30.600000 100 100 100 
16.125000 15.500000 -30.600000 99 99 99 
16.187500 15.500000 -30.600000 99 99 99 
16.250000 15.500000 -30.600000 99 99 99 
16.312500 15.500000 -30.600000 99 99 99 
16.375000 15.500000 -30.600000 99 99 99 
16.437500 15.500000 -30.600000 99 99 99 
16.500000 15.500000 -30.600000 98 98 98 
16.562500 15.500000 -30.600000 97 97 97 
16.625000 15.500000 -30.600000 98 98 98 
16.687500 15.500000 -30.600000 98 98 98 
16.750000 15.500000 -30.600000 98 98 98 
16.812500 15.500000 -30.600000 98 98 98 
16.875000 15.500000 -30.600000 97 97 97 
16.937500 15.500000 -30.600000 97 97 97 
17.000000 15.500000 -30.600000 97 97 97 
17.062500 15.500000 -30.600000 98 98 98 
16.481203 14.917294 -29.449625 97 97 97 
16.417910 14.805970 -29.229851 97 97 97 
16.416357 14.750930 -29.121189 98 98 98 
16.537313 14.805970 -29.229851 97 97 97 
16.413284 14.642066 -28.906273 97 97 97 
16.411764 14.588235 -28.800001 96 96 96 
16.350365 14.481751 -28.589781 96 96 96 
16.289856 14.376812 -28.382608 96 96 96 
16.288809 14.324910 -28.280146 97 97 97 
16.229391 14.222222 -28.077419 96 96 96 
16.286737 14.222222 -28.077419 96 96 96 
16.521740 14.376812 -28.382608 95 95 95 
16.579710 14.376812 -28.382608 96 96 96 
16.577618 14.324910 -28.280146 95 95 95 
16.516129 14.222222 -28.077419 94 94 94 
16.573477 14.222222 -28.077419 95 95 95 
16.690647 14.273381 -28.178417 95 95 95 
16.808664 14.324910 -28.280146 94 94 94 
16.805756 14.273381 -28.178417 94 94 94 
16.802868 14.222222 -28.077419 94 94 94 
16.680851 14.070922 -27.778725 94 94 94 
16.619719 13.971831 -27.583099 94 94 94 
16.617544 13.922807 -27.486317 94 94 94 
16.500000 13.777778 -27.200001 93 93 93 
16.788733 13.971831 -27.583099 93 93 93 
-1.451247 2.240363 -4.440816 107 107 107 
-1.432432 2.225225 -4.410811 107 107 107 
-1.423423 2.225225 -4.410811 107 107 107 
-0.791618 2.300349 -4.559721 109 109 109 
-0.782305 2.300349 -4.559721 109 109 109 
-0.771644 2.296339 -4.551772 108 108 108 
-0.762347 2.296339 -4.551772 109 109 109 
-0.752176 2.293674 -4.546489 109 109 109 
-0.720721 2.225225 -4.410811 109 109 109 
-0.711712 2.225225 -4.410811 109 109 109 
-0.702703 2.225225 -4.410811 109 109 109 
-0.693694 2.225225 -4.410811 109 109 109 
-0.684685 2.225225 -4.410811 109 109 109 
-0.675676 2.225225 -4.410811 109 109 109 
-0.666667 2.225225 -4.410811 110 110 110 
-0.657658 2.225225 -4.410811 110 110 110 
-0.648649 2.225225 -4.410811 109 109 109 
-0.639640 2.225225 -4.410811 109 109 109 
-0.630631 2.225225 -4.410811 109 109 109 
-0.621622 2.225225 -4.410811 110 110 110 
-0.612613 2.225225 -4.410811 110 110 110 
-0.603604 2.225225 -4.410811 110 110 110 
-0.594595 2.225225 -4.410811 109 109 109 
-0.585586 2.225225 -4.410811 109 109 109 
-0.576577 2.225225 -4.410811 109 109 109 
-0.567568 2.225225 -4.410811 109 109 109 
-0.558559 2.225225 -4.410811 110 110 110 
-0.549550 2.225225 -4.410811 110 110 110 
-0.540541 2.225225 -4.410811 110 110 110 
-0.531532 2.225225 -4.410811 110 110 110 
-0.144687 2.978146 -5.903241 110 110 110 
-0.132630 2.978146 -5.903241 110 110 110 
-0.120573 2.978146 -5.903241 111 111 111 
-0.108515 2.978146 -5.903241 110 110 110 
-0.096458 2.978146 -5.903241 111 111 111 
-0.084465 2.980392 -5.907692 111 111 111 
-0.072398 2.980392 -5.907692 110 110 110 
-0.060332 2.980392 -5.907692 110 110 110 
-0.048229 2.978146 -5.903241 110 110 110 
-0.036172 2.978146 -5.903241 111 111 111 
-0.024115 2.978146 -5.903241 110 110 110 
-0.012048 2.975904 -5.898795 110 110 110 
0.000000 2.975904 -5.898795 110 110 110 
0.012048 2.975904 -5.898795 110 110 110 
0.024096 2.975904 -5.898795 110 110 110 
0.036117 2.973665 -5.894357 110 110 110 
0.048157 2.973665 -5.894357 110 110 110 
0.060196 2.973665 -5.894357 110 110 110 
0.072235 2.973665 -5.894357 110 110 110 
0.084274 2.973665 -5.894357 111 111 111 
0.096313 2.973665 -5.894357 111 111 111 
0.179487 3.166667 -6.276923 110 110 110 
0.192154 3.164131 -6.271898 110 110 110 
0.204964 3.164131 -6.271898 110 110 110 
0.217774 3.164131 -6.271898 111 111 111 
0.230584 3.164131 -6.271898 110 110 110 
0.243395 3.164131 -6.271898 110 110 110 
0.256410 3.166667 -6.276923 111 111 111 
0.269231 3.166667 -6.276923 112 112 112 
0.282051 3.166667 -6.276923 111 111 111 
0.295108 3.169206 -6.281957 110 110 110 
0.308186 3.171750 -6.286998 110 110 110 
0.321543 3.176849 -6.297106 111 111 111 
0.334944 3.181965 -6.307247 111 111 111 
0.348424 2.264756 -4.489169 110 110 110 
0.357593 2.264756 -4.489169 110 110 110 
0.366972 2.266055 -4.491743 109 109 109 
0.376147 2.266055 -4.491743 110 110 110 
0.385100 2.264756 -4.489169 109 109 109 
0.394044 2.263459 -4.486598 110 110 110 
0.403207 2.263459 -4.486598 110 110 110 
1.248227 2.802837 -5.555745 108 108 108 
1.259574 2.802837 -5.555745 108 108 108 
1.270922 2.802837 -5.555745 108 108 108 
1.281361 2.800850 -5.551807 108 108 108 
1.292700 2.800850 -5.551807 108 108 108 
1.304040 2.800850 -5.551807 107 107 107 
1.803990 3.427580 -6.794102 107 107 107 
5.174312 9.064220 -17.966972 107 107 107 
5.211009 9.064220 -17.966972 106 106 106 
5.259770 9.085057 -18.008276 106 106 106 
5.308756 9.105990 -18.049770 107 107 107 
5.357968 9.127021 -18.091455 106 106 106 
5.407407 9.148149 -18.133333 106 106 106 
5.444445 9.148149 -18.133333 106 106 106 
5.494200 9.169374 -18.175406 106 106 106 
5.557109 9.212121 -18.260139 107 107 107 
5.620609 9.255269 -18.345667 106 106 106 
5.725119 9.364929 -18.563034 106 106 106 
5.804296 9.431981 -18.695944 106 106 106 
5.870503 9.477219 -18.785612 106 106 106 
5.923077 9.500000 -18.830769 106 106 106 
5.990338 9.545894 -18.921740 106 106 106 
6.028986 9.545894 -18.921740 106 106 106 
6.067633 9.545894 -18.921740 105 105 105 
6.106280 9.545894 -18.921740 106 106 106 
5.612903 7.967742 -15.793549 105 105 105 
5.633803 7.951710 -15.761771 105 105 105 
5.654618 7.935743 -15.730121 105 105 105 
5.686747 7.935743 -15.730121 104 104 104 
5.718875 7.935743 -15.730121 105 105 105 
5.751004 7.935743 -15.730121 104 104 104 
5.771543 7.919840 -15.698597 105 105 105 
5.792000 7.904000 -15.667200 105 105 105 
5.824000 7.904000 -15.667200 104 104 104 
5.856000 7.904000 -15.667200 104 104 104 
5.888000 7.904000 -15.667200 104 104 104 
5.920000 7.904000 -15.667200 104 104 104 
5.952000 7.904000 -15.667200 104 104 104 
5.995992 7.919840 -15.698597 105 105 105 
10.349835 13.042904 -25.853466 104 104 104 
10.368421 13.000000 -25.768421 103 103 103 
10.421053 13.000000 -25.768421 103 103 103 
10.439344 12.957377 -25.683935 103 103 103 
10.457517 12.915032 -25.600000 104 104 104 
10.441559 12.831169 -25.433767 103 103 103 
10.459547 12.789644 -25.351456 103 103 103 
10.511327 12.789644 -25.351456 104 104 104 
10.563107 12.789644 -25.351456 104 104 104 
10.614886 12.789644 -25.351456 103 103 103 
10.632258 12.748387 -25.269678 104 104 104 
10.649518 12.707396 -25.188425 103 103 103 
10.632587 12.626198 -25.027477 103 103 103 
10.649681 12.585987 -24.947771 102 102 102 
10.700637 12.585987 -24.947771 102 102 102 
10.751593 12.585987 -24.947771 103 103 103 
11.012987 12.831169 -25.433767 103 103 103 
11.100977 12.872964 -25.516613 102 102 102 
11.189543 12.915032 -25.600000 102 102 102 
11.315789 13.000000 -25.768421 102 102 102 
11.443708 13.086093 -25.939074 103 103 103 
11.690236 13.306397 -26.375757 103 103 103 
11.823729 13.396610 -26.554577 102 102 102 
11.877966 13.396610 -26.554577 103 103 103 
11.932203 13.396610 -26.554577 103 103 103 
11.986441 13.396610 -26.554577 103 103 103 
12.040678 13.396610 -26.554577 102 102 102 
12.094915 13.396610 -26.554577 102 102 102 
12.149153 13.396610 -26.554577 102 102 102 
12.244898 13.442177 -26.644897 102 102 102 
12.299319 13.442177 -26.644897 102 102 102 
12.438356 13.534246 -26.827398 101 101 101 
12.666667 13.722222 -27.200001 102 102 102 
14.875000 15.437500 -30.600000 102 102 102 
14.937500 15.437500 -30.600000 101 101 101 
15.250000 15.437500 -30.600000 100 100 100 
15.312500 15.437500 -30.600000 100 100 100 
15.375000 15.437500 -30.600000 100 100 100 
15.437500 15.437500 -30.600000 100 100 100 
15.500000 15.437500 -30.600000 100 100 100 
15.562500 15.437500 -30.600000 100 100 100 
15.625000 15.437500 -30.600000 101 101 101 
15.687500 15.437500 -30.600000 100 100 100 
15.750000 15.437500 -30.600000 100 100 100 
15.812500 15.437500 -30.600000 100 100 100 
15.875000 15.437500 -30.600000 100 100 100 
15.937500 15.437500 -30.600000 100 100 100 
16.000000 15.437500 -30.600000 100 100 100 
16.062500 15.437500 -30.600000 100 100 100 
16.125000 15.437500 -30.600000 99 99 99 
16.187500 15.437500 -30.600000 99 99 99 
16.250000 15.437500 -30.600000 99 99 99 
16.312500 15.437500 -30.600000 100 100 100 
16.375000 15.437500 -30.600000 99 99 99 
16.437500 15.437500 -30.600000 99 99 99 
16.500000 15.437500 -30.600000 99 99 99 
16.562500 15.437500 -30.600000 98 98 98 
16.625000 15.437500 -30.600000 98 98 98 
16.687500 15.437500 -30.600000 98 98 98 
16.750000 15.437500 -30.600000 98 98 98 
16.812500 15.437500 -30.600000 98 98 98 
16.875000 15.437500 -30.600000 98 98 98 
16.937500 15.437500 -30.600000 98 98 98 
17.000000 15.437500 -30.600000 98 98 98 
17.062500 15.437500 -30.600000 98 98 98 
16.481203 14.857142 -29.449625 98 98 98 
16.356876 14.691450 -29.121189 97 97 97 
16.416357 14.691450 -29.121189 97 97 97 
16.475836 14.691450 -29.121189 97 97 97 
16.474073 14.637037 -29.013334 96 96 96 
16.411764 14.529411 -28.800001 97 97 97 
16.470589 14.529411 -28.800001 97 97 97 
16.408760 14.423358 -28.589781 97 97 97 
16.347826 14.318841 -28.382608 96 96 96 
16.346571 14.267148 -28.280146 97 97 97 
16.463768 14.318841 -28.382608 97 97 97 
16.581818 14.370909 -28.485819 96 96 96 
16.639999 14.370909 -28.485819 96 96 96 
16.698181 14.370909 -28.485819 96 96 96 
16.635380 14.267148 -28.280146 95 95 95 
16.633093 14.215827 -28.178417 95 95 95 
16.750902 14.267148 -28.280146 96 96 96 
16.748201 14.215827 -28.178417 95 95 95 
16.805756 14.215827 -28.178417 94 94 94 
16.683273 14.064057 -27.877581 94 94 94 
16.563381 13.915493 -27.583099 95 95 95 
16.561403 13.866667 -27.486317 94 94 94 
16.444445 13.722222 -27.200001 94 94 94 
16.442907 13.674741 -27.105883 94 94 94 
16.498270 13.674741 -27.105883 93 93 93 
-1.441441 2.216216 -4.410811 108 108 108 
-1.432432 2.216216 -4.410811 107 107 107 
-1.423423 2.216216 -4.410811 108 108 108 
-1.414414 2.216216 -4.410811 108 108 108 
-0.800931 2.291036 -4.559721 110 110 110 
-0.790698 2.288372 -4.554419 109 109 109 
-0.780941 2.287042 -4.551772 110 110 110 
-0.771644 2.287042 -4.551772 109 109 109 
-0.761905 2.285714 -4.549129 110 110 110 
-0.752176 2.284388 -4.546489 110 110 110 
-0.742029 2.281739 -4.541217 110 110 110 
-0.731905 2.279097 -4.535958 109 109 109 
-0.722222 2.277778 -4.533333 109 109 109 
-0.693694 2.216216 -4.410811 109 109 109 
-0.684685 2.216216 -4.410811 109 109 109 
-0.675676 2.216216 -4.410811 109 109 109 
-0.666667 2.216216 -4.410811 110 110 110 
-0.657658 2.216216 -4.410811 110 110 110 
-0.648649 2.216216 -4.410811 110 110 110 
-0.639640 2.216216 -4.410811 109 109 109 
-0.630631 2.216216 -4.410811 110 110 110 
-0.621622 2.216216 -4.410811 110 110 110 
-0.612613 2.216216 -4.410811 110 110 110 
-0.603604 2.216216 -4.410811 110 110 110 
-0.594595 2.216216 -4.410811 109 109 109 
-0.585586 2.216216 -4.410811 110 110 110 
-0.576577 2.216216 -4.410811 110 110 110 
-0.567568 2.216216 -4.410811 110 110 110 
-0.558559 2.216216 -4.410811 110 110 110 
-0.549550 2.216216 -4.410811 110 110 110 
-0.540541 2.216216 -4.410811 109 109 109 
-0.036172 2.966089 -5.903241 111 111 111 
-0.024115 2.966089 -5.903241 111 111 111 
-0.012048 2.963856 -5.898795 110 110 110 
0.000000 2.963856 -5.898795 111 111 111 
0.012048 2.963856 -5.898795 111 111 111 
0.024096 2.963856 -5.898795 110 110 110 
0.036145 2.963856 -5.898795 110 110 110 
0.048157 2.961625 -5.894357 111 111 111 
0.060196 2.961625 -5.894357 110 110 110 
0.072235 2.961625 -5.894357 111 111 111 
0.084274 2.961625 -5.894357 111 111 111 
0.179487 3.153846 -6.276923 111 111 111 
0.192154 3.151321 -6.271898 111 111 111 
0.204964 3.151321 -6.271898 111 111 111 
0.217774 3.151321 -6.271898 110 110 110 
0.230584 3.151321 -6.271898 111 111 111 
0.243395 3.151321 -6.271898 111 111 111 
0.256205 3.151321 -6.271898 112 112 112 
0.269231 3.153846 -6.276923 111 111 111 
0.282051 3.153846 -6.276923 111 111 111 
0.294872 3.153846 -6.276923 111 111 111 
0.308186 3.158909 -6.286998 110 110 110 
0.339255 2.255587 -4.489169 110 110 110 
0.348424 2.255587 -4.489169 110 110 110 
0.357593 2.255587 -4.489169 110 110 110 
0.366762 2.255587 -4.489169 110 110 110 
0.375931 2.255587 -4.489169 110 110 110 
0.385100 2.255587 -4.489169 111 111 111 
0.394044 2.254296 -4.486598 111 111 111 
0.402977 2.253005 -4.484030 110 110 110 
0.411664 2.250429 -4.478902 110 110 110 
1.193182 2.795455 -5.563636 109 109 109 
1.204545 2.795455 -5.563636 109 109 109 
1.226402 2.793471 -5.559688 109 109 109 
1.236879 2.791489 -5.555745 108 108 108 
1.248227 2.791489 -5.555745 107 107 107 
1.259574 2.791489 -5.555745 108 108 108 
1.270922 2.791489 -5.555745 109 109 109 
1.282269 2.791489 -5.555745 108 108 108 
1.292700 2.789511 -5.551807 108 108 108 
1.304040 2.789511 -5.551807 108 108 108 
1.316312 2.791489 -5.555745 108 108 108 
5.162471 9.006865 -17.925858 107 107 107 
5.199085 9.006865 -17.925858 107 107 107 
5.259770 9.048276 -18.008276 107 107 107 
5.296552 9.048276 -18.008276 107 107 107 
5.357968 9.090069 -18.091455 106 106 106 
5.407407 9.111111 -18.133333 106 106 106 
5.444445 9.111111 -18.133333 107 107 107 
5.494200 9.132251 -18.175406 106 106 106 
5.570094 9.196261 -18.302803 106 106 106 
5.687204 9.327014 -18.563034 106 106 106 
5.738718 9.349169 -18.607126 106 106 106 
5.832134 9.438848 -18.785612 106 106 106 
5.884615 9.461538 -18.830769 106 106 106 
5.951691 9.507246 -18.921740 106 106 106 
6.019417 9.553398 -19.013592 107 107 107 
5.622490 7.903615 -15.730121 105 105 105 
5.654618 7.903615 -15.730121 105 105 105 
5.686747 7.903615 -15.730121 105 105 105 
5.718875 7.903615 -15.730121 105 105 105 
5.728000 7.872000 -15.667200 105 105 105 
5.760000 7.872000 -15.667200 105 105 105 
5.792000 7.872000 -15.667200 105 105 105 
5.824000 7.872000 -15.667200 105 105 105 
5.856000 7.872000 -15.667200 105 105 105 
5.876247 7.856287 -15.635928 105 105 105 
5.920000 7.872000 -15.667200 105 105 105 
5.952000 7.872000 -15.667200 105 105 105 
10.297029 12.990099 -25.853466 105 105 105 
10.349835 12.990099 -25.853466 104 104 104 
10.368421 12.947369 -25.768421 103 103 103 
10.421053 12.947369 -25.768421 104 104 104 
10.405229 12.862745 -25.600000 104 104 104 
10.423452 12.820847 -25.516613 104 104 104 
10.441559 12.779221 -25.433767 104 104 104 
10.459547 12.737864 -25.351456 103 103 103 
10.511327 12.737864 -25.351456 104 104 104 
10.563107 12.737864 -25.351456 104 104 104 
10.614886 12.737864 -25.351456 104 104 104 
10.632258 12.696774 -25.269678 104 104 104 
10.649518 12.655949 -25.188425 103 103 103 
10.632587 12.575080 -25.027477 103 103 103 
10.683706 12.575080 -25.027477 103 103 103 
10.803859 12.655949 -25.188425 103 103 103 
10.925567 12.737864 -25.351456 103 103 103 
11.048860 12.820847 -25.516613 103 103 103 
11.173771 12.904918 -25.683935 103 103 103 
11.263158 12.947369 -25.768421 103 103 103 
11.390729 13.033113 -25.939074 103 103 103 
11.558529 13.163879 -26.199331 103 103 103 
11.690236 13.252525 -26.375757 103 103 103 
11.823729 13.342373 -26.554577 103 103 103 
11.918367 13.387755 -26.644897 103 103 103 
12.013652 13.433447 -26.735836 102 102 102 
12.068259 13.433447 -26.735836 102 102 102 
12.122867 13.433447 -26.735836 102 102 102 
12.177474 13.433447 -26.735836 102 102 102 
12.273973 13.479452 -26.827398 102 102 102 
12.371134 13.525773 -26.919588 103 103 103 
12.426117 13.525773 -26.919588 102 102 102 
12.567474 13.619377 -27.105883 102 102 102 
12.800000 13.810526 -27.486317 102 102 102 
14.750000 15.375000 -30.600000 102 102 102 
14.812500 15.375000 -30.600000 102 102 102 
14.875000 15.375000 -30.600000 102 102 102 
14.937500 15.375000 -30.600000 102 102 102 
15.000000 15.375000 -30.600000 102 102 102 
15.062500 15.375000 -30.600000 101 101 101 
15.125000 15.375000 -30.600000 101 101 101 
15.187500 15.375000 -30.600000 101 101 101 
15.250000 15.375000 -30.600000 101 101 101 
15.312500 15.375000 -30.600000 100 100 100 
15.375000 15.375000 -30.600000 101 101 101 
15.437500 15.375000 -30.600000 101 101 101 
15.500000 15.375000 -30.600000 101 101 101 
15.562500 15.375000 -30.600000 101 101 101 
15.625000 15.375000 -30.600000 101 101 101 
15.687500 15.375000 -30.600000 101 101 101 
15.750000 15.375000 -30.600000 101 101 101 
15.812500 15.375000 -30.600000 101 101 101 
15.875000 15.375000 -30.600000 101 101 101 
15.937500 15.375000 -30.600000 100 100 100 
16.000000 15.375000 -30.600000 101 101 101 
16.062500 15.375000 -30.600000 100 100 100 
16.125000 15.375000 -30.600000 100 100 100 
16.187500 15.375000 -30.600000 100 100 100 
16.250000 15.375000 -30.600000 100 100 100 
16.312500 15.375000 -30.600000 100 100 100 
16.375000 15.375000 -30.600000 99 99 99 
16.437500 15.375000 -30.600000 99 99 99 
16.500000 15.375000 -30.600000 99 99 99 
16.562500 15.375000 -30.600000 99 99 99 
16.625000 15.375000 -30.600000 99 99 99 
16.687500 15.375000 -30.600000 98 98 98 
16.750000 15.375000 -30.600000 98 98 98 
16.241508 14.852830 -29.560755 99 99 99 
16.301888 14.852830 -29.560755 98 98 98 
16.300753 14.796992 -29.449625 99 99 99 
17.000000 15.375000 -30.600000 99 99 99 
16.483019 14.852830 -29.560755 98 98 98 
16.481203 14.796992 -29.449625 97 97 97 
16.356876 14.631970 -29.121189 97 97 97 
16.416357 14.631970 -29.121189 98 98 98 
16.475836 14.631970 -29.121189 98 98 98 
16.474073 14.577778 -29.013334 98 98 98 
16.472324 14.523985 -28.906273 98 98 98 
16.470589 14.470589 -28.800001 97 97 97 
16.468864 14.417583 -28.694506 97 97 97 
16.467154 14.364964 -28.589781 96 96 96 
16.525547 14.364964 -28.589781 97 97 97 
16.583942 14.364964 -28.589781 97 97 97 
16.642336 14.364964 -28.589781 96 96 96 
16.761906 14.417583 -28.694506 96 96 96 
16.759125 14.364964 -28.589781 96 96 96 
16.756363 14.312727 -28.485819 96 96 96 
16.753624 14.260870 -28.382608 96 96 96 
16.811594 14.260870 -28.382608 96 96 96 
16.808664 14.209386 -28.280146 96 96 96 
16.805756 14.158274 -28.178417 95 95 95 
16.683273 14.007117 -27.877581 94 94 94 
16.563381 13.859155 -27.583099 95 95 95 
16.561403 13.810526 -27.486317 94 94 94 
16.559441 13.762238 -27.390209 94 94 94 
16.500000 13.666667 -27.200001 94 94 94 
16.729824 13.810526 -27.486317 94 94 94 
-1.441441 2.207207 -4.410811 108 108 108 
-1.432432 2.207207 -4.410811 108 108 108 
-1.423423 2.207207 -4.410811 109 109 109 
-1.414414 2.207207 -4.410811 109 109 109 
-1.405405 2.207207 -4.410811 108 108 108 
-1.396396 2.207207 -4.410811 108 108 108 
-0.847991 2.283052 -4.562376 109 109 109 
-0.838672 2.283052 -4.562376 110 110 110 
-0.829354 2.283052 -4.562376 110 110 110 
-0.819081 2.280396 -4.557068 110 110 110 
-0.809302 2.279070 -4.554419 110 110 110 
-0.800000 2.279070 -4.554419 110 110 110 
-0.788863 2.273782 -4.543851 109 109 109 
-0.779582 2.273782 -4.543851 110 110 110 
-0.770302 2.273782 -4.543851 110 110 110 
-0.760580 2.272464 -4.541217 111 111 111 
-0.751304 2.272464 -4.541217 112 112 112 
-0.741599 2.271147 -4.538587 111 111 111 
-0.731905 2.269832 -4.535958 110 110 110 
-0.722640 2.269832 -4.535958 110 110 110 
-0.712963 2.268518 -4.533333 110 110 110 
-0.641466 2.245132 -4.486598 110 110 110 
-0.578313 2.248996 -4.494320 110 110 110 
-0.569134 2.248996 -4.494320 110 110 110 
-0.024115 2.954032 -5.903241 111 111 111 
-0.012048 2.951807 -5.898795 111 111 111 
0.000000 2.951807 -5.898795 111 111 111 
0.012048 2.951807 -5.898795 110 110 110 
0.024096 2.951807 -5.898795 111 111 111 
0.036145 2.951807 -5.898795 111 111 111 
0.048157 2.949586 -5.894357 111 111 111 
0.060196 2.949586 -5.894357 111 111 111 
0.072235 2.949586 -5.894357 112 112 112 
0.084337 2.951807 -5.898795 111 111 111 
0.192154 3.138511 -6.271898 111 111 111 
0.204964 3.138511 -6.271898 111 111 111 
0.217600 3.136000 -6.266880 110 110 110 
0.230400 3.136000 -6.266880 111 111 111 
0.243395 3.138511 -6.271898 111 111 111 
0.256205 3.138511 -6.271898 111 111 111 
0.269015 3.138511 -6.271898 110 110 110 
0.282051 3.141026 -6.276923 111 111 111 
0.294872 3.141026 -6.276923 112 112 112 
0.320917 2.246418 -4.489169 111 111 111 
0.329897 2.245132 -4.486598 111 111 111 
0.339061 2.245132 -4.486598 111 111 111 
0.348225 2.245132 -4.486598 110 110 110 
0.357593 2.246418 -4.489169 111 111 111 
0.366972 2.247706 -4.491743 111 111 111 
0.376147 2.247706 -4.491743 111 111 111 
0.385321 2.247706 -4.491743 111 111 111 
0.394044 2.245132 -4.486598 111 111 111 
0.402977 2.243847 -4.484030 111 111 111 
0.411899 2.242563 -4.481464 111 111 111 
0.421294 2.243847 -4.484030 111 111 111 
1.181818 2.784091 -5.563636 110 110 110 
1.193182 2.784091 -5.563636 109 109 109 
1.203691 2.782115 -5.559688 109 109 109 
1.215046 2.782115 -5.559688 109 109 109 
1.225532 2.780142 -5.555745 109 109 109 
1.236879 2.780142 -5.555745 108 108 108 
1.248227 2.780142 -5.555745 109 109 109 
1.259574 2.780142 -5.555745 109 109 109 
1.270922 2.780142 -5.555745 109 109 109 
1.282269 2.780142 -5.555745 109 109 109 
1.293617 2.780142 -5.555745 109 109 109 
1.304965 2.780142 -5.555745 108 108 108 
1.316312 2.780142 -5.555745 109 109 109 
5.162471 8.970252 -17.925858 107 107 107 
5.211009 8.990826 -17.966972 108 108 108 
5.259770 9.011495 -18.008276 108 108 108 
5.321016 9.053118 -18.091455 108 108 108 
5.370370 9.074074 -18.133333 107 107 107 
5.407407 9.074074 -18.133333 107 107 107 
5.444445 9.074074 -18.133333 107 107 107 
5.654618 7.871486 -15.730121 106 106 106 
5.686747 7.871486 -15.730121 106 106 106 
5.696000 7.840000 -15.667200 106 106 106 
5.728000 7.840000 -15.667200 105 105 105 
5.748503 7.824351 -15.635928 105 105 105 
5.780439 7.824351 -15.635928 105 105 105 
5.800797 7.808765 -15.604781 105 105 105 
5.832669 7.808765 -15.604781 105 105 105 
5.864542 7.808765 -15.604781 105 105 105 
5.908184 7.824351 -15.635928 106 106 106 
5.952000 7.840000 -15.667200 105 105 105 
10.278146 12.980132 -25.939074 105 105 105 
10.263158 12.894737 -25.768421 105 105 105 
10.384106 12.980132 -25.939074 104 104 104 
10.402640 12.937294 -25.853466 104 104 104 
10.421053 12.894737 -25.768421 104 104 104 
10.371335 12.768729 -25.516613 104 104 104 
10.389610 12.727273 -25.433767 104 104 104 
10.407767 12.686084 -25.351456 105 105 105 
10.425806 12.645162 -25.269678 105 105 105 
10.477419 12.645162 -25.269678 105 105 105 
10.495177 12.604502 -25.188425 104 104 104 
10.546624 12.604502 -25.188425 104 104 104 
10.598071 12.604502 -25.188425 104 104 104 
10.581470 12.523962 -25.027477 103 103 103 
10.598726 12.484076 -24.947771 103 103 103 
10.649681 12.484076 -24.947771 103 103 103 
10.803859 12.604502 -25.188425 103 103 103 
10.925567 12.686084 -25.351456 104 104 104 
11.121311 12.852459 -25.683935 103 103 103 
11.210526 12.894737 -25.768421 104 104 104 
11.337749 12.980132 -25.939074 104 104 104 
11.505016 13.110368 -26.199331 104 104 104 
11.636364 13.198653 -26.375757 104 104 104 
11.769491 13.288136 -26.554577 104 104 104 
11.863946 13.333333 -26.644897 103 103 103 
11.959044 13.378839 -26.735836 104 104 104 
12.054794 13.424658 -26.827398 103 103 103 
12.151203 13.470790 -26.919588 102 102 102 
12.206185 13.470790 -26.919588 102 102 102 
12.261168 13.470790 -26.919588 103 103 103 
12.358621 13.517241 -27.012415 103 103 103 
12.456747 13.564013 -27.105883 103 103 103 
12.512111 13.564013 -27.105883 103 103 103 
12.655052 13.658537 -27.294773 103 103 103 
14.562500 15.312500 -30.600000 102 102 102 
14.625000 15.312500 -30.600000 103 103 103 
14.687500 15.312500 -30.600000 103 103 103 
14.750000 15.312500 -30.600000 102 102 102 
14.812500 15.312500 -30.600000 102 102 102 
14.875000 15.312500 -30.600000 102 102 102 
14.937500 15.312500 -30.600000 102 102 102 
15.000000 15.312500 -30.600000 102 102 102 
15.062500 15.312500 -30.600000 102 102 102 
15.125000 15.312500 -30.600000 101 101 101 
15.187500 15.312500 -30.600000 101 101 101 
15.250000 15.312500 -30.600000 101 101 101 
15.312500 15.312500 -30.600000 101 101 101 
15.375000 15.312500 -30.600000 101 101 101 
15.437500 15.312500 -30.600000 101 101 101 
15.500000 15.312500 -30.600000 101 101 101 
15.562500 15.312500 -30.600000 101 101 101 
15.625000 15.312500 -30.600000 101 101 101 
15.687500 15.312500 -30.600000 101 101 101 
15.750000 15.312500 -30.600000 101 101 101 
15.812500 15.312500 -30.600000 100 100 100 
15.875000 15.312500 -30.600000 100 100 100 
15.937500 15.312500 -30.600000 100 100 100 
16.000000 15.312500 -30.600000 100 100 100 
16.062500 15.312500 -30.600000 100 100 100 
16.125000 15.312500 -30.600000 100 100 100 
16.187500 15.312500 -30.600000 101 101 101 
16.250000 15.312500 -30.600000 100 100 100 
16.312500 15.312500 -30.600000 100 100 100 
16.375000 15.312500 -30.600000 100 100 100 
16.437500 15.312500 -30.600000 99 99 99 
16.500000 15.312500 -30.600000 99 99 99 
16.562500 15.312500 -30.600000 99 99 99 
16.625000 15.312500 -30.600000 99 99 99 
16.687500 15.312500 -30.600000 99 99 99 
16.750000 15.312500 -30.600000 99 99 99 
16.119850 14.681648 -29.339327 99 99 99 
16.301888 14.792453 -29.560755 99 99 99 
16.300753 14.736842 -29.449625 99 99 99 
16.422642 14.792453 -29.560755 99 99 99 
16.421053 14.736842 -29.449625 99 99 99 
16.419476 14.681648 -29.339327 98 98 98 
16.356876 14.572491 -29.121189 98 98 98 
16.355556 14.518518 -29.013334 99 99 99 
16.475836 14.572491 -29.121189 98 98 98 
16.535316 14.572491 -29.121189 97 97 97 
16.472324 14.464945 -28.906273 98 98 98 
16.470589 14.411765 -28.800001 98 98 98 
16.468864 14.358974 -28.694506 97 97 97 
16.467154 14.306569 -28.589781 97 97 97 
16.525547 14.306569 -28.589781 97 97 97 
16.583942 14.306569 -28.589781 97 97 97 
16.703297 14.358974 -28.694506 97 97 97 
16.823530 14.411765 -28.800001 96 96 96 
16.882353 14.411765 -28.800001 96 96 96 
16.879122 14.358974 -28.694506 96 96 96 
16.875912 14.306569 -28.589781 96 96 96 
16.934307 14.306569 -28.589781 96 96 96 
16.930908 14.254545 -28.485819 96 96 96 
16.927536 14.202899 -28.382608 96 96 96 
16.802868 14.050179 -28.077419 96 96 96 
16.740213 13.950178 -27.877581 95 95 95 
16.619719 13.802817 -27.583099 95 95 95 
16.617544 13.754386 -27.486317 95 95 95 
16.673685 13.754386 -27.486317 95 95 95 
17.465202 14.358974 -28.694506 94 94 94 
-1.441441 2.198198 -4.410811 109 109 109 
-1.432432 2.198198 -4.410811 109 109 109 
-1.423423 2.198198 -4.410811 109 109 109 
-1.414414 2.198198 -4.410811 109 109 109 
-1.405405 2.198198 -4.410811 109 109 109 
-1.396396 2.198198 -4.410811 109 109 109 
-1.387387 2.198198 -4.410811 108 108 108 
-0.857309 2.273733 -4.562376 110 110 110 
-0.847497 2.272410 -4.559721 110 110 110 
-0.837696 2.271088 -4.557068 110 110 110 
-0.828389 2.271088 -4.557068 110 110 110 
-0.817654 2.267131 -4.549129 110 110 110 
-0.807425 2.264501 -4.543851 109 109 109 
-0.798144 2.264501 -4.543851 111 111 111 
-0.788406 2.263188 -4.541217 110 110 110 
-0.778679 2.261877 -4.538587 110 110 110 
-0.769409 2.261877 -4.538587 110 110 110 
-0.760139 2.261877 -4.538587 111 111 111 
-0.750869 2.261877 -4.538587 111 111 111 
-0.741170 2.260567 -4.535958 110 110 110 
-0.731905 2.260567 -4.535958 110 110 110 
-0.722222 2.259259 -4.533333 110 110 110 
-0.712963 2.259259 -4.533333 111 111 111 
-0.579310 2.243678 -4.502069 110 110 110 
-0.570115 2.243678 -4.502069 111 111 111 
-0.024115 2.941974 -5.903241 111 111 111 
-0.012048 2.939759 -5.898795 112 112 112 
0.000000 2.939759 -5.898795 111 111 111 
0.012048 2.939759 -5.898795 111 111 111 
0.024096 2.939759 -5.898795 111 111 111 
0.036145 2.939759 -5.898795 112 112 112 
0.048193 2.939759 -5.898795 112 112 112 
0.060241 2.939759 -5.898795 112 112 112 
0.072235 2.937547 -5.894357 112 112 112 
0.084337 2.939759 -5.898795 111 111 111 
0.204800 3.123200 -6.266880 111 111 111 
0.217600 3.123200 -6.266880 111 111 111 
0.230400 3.123200 -6.266880 111 111 111 
0.243200 3.123200 -6.266880 111 111 111 
0.256205 3.125700 -6.271898 111 111 111 
0.269015 3.125700 -6.271898 110 110 110 
0.281825 3.125700 -6.271898 112 112 112 
0.294872 3.128205 -6.276923 112 112 112 
0.311748 2.237249 -4.489169 111 111 111 
0.320917 2.237249 -4.489169 112 112 112 
0.329897 2.235968 -4.486598 111 111 111 
0.339061 2.235968 -4.486598 112 112 112 
0.348225 2.235968 -4.486598 112 112 112 
0.357593 2.237249 -4.489169 112 112 112 
0.366972 2.238532 -4.491743 111 111 111 
0.376147 2.238532 -4.491743 110 110 110 
0.385321 2.238532 -4.491743 111 111 111 
0.394269 2.237249 -4.489169 111 111 111 
0.402977 2.234688 -4.484030 111 111 111 
0.412135 2.234688 -4.484030 111 111 111 
0.421053 2.233410 -4.481464 111 111 111 
0.430452 2.234688 -4.484030 111 111 111 
1.181818 2.772727 -5.563636 109 109 109 
1.193182 2.772727 -5.563636 110 110 110 
1.203691 2.770759 -5.559688 109 109 109 
1.214184 2.768794 -5.555745 109 109 109 
1.225532 2.768794 -5.555745 109 109 109 
1.236879 2.768794 -5.555745 109 109 109 
1.248227 2.768794 -5.555745 109 109 109 
1.259574 2.768794 -5.555745 109 109 109 
1.270922 2.768794 -5.555745 108 108 108 
1.282269 2.768794 -5.555745 109 109 109 
1.293617 2.768794 -5.555745 109 109 109 
1.304965 2.768794 -5.555745 109 109 109 
1.316312 2.768794 -5.555745 109 109 109 
5.686747 7.839357 -15.730121 106 106 106 
5.696000 7.808000 -15.667200 105 105 105 
5.693837 7.761431 -15.573758 105 105 105 
5.702971 7.730693 -15.512079 106 106 106 
5.723320 7.715415 -15.481423 106 106 106 
5.743590 7.700197 -15.450888 105 105 105 
5.775148 7.700197 -15.450888 105 105 105 
5.818182 7.715415 -15.481423 106 106 106 
5.896414 7.776893 -15.604781 106 106 106 
10.124590 12.800000 -25.683935 105 105 105 
10.045307 12.634304 -25.351456 104 104 104 
10.064516 12.593549 -25.269678 105 105 105 
10.315789 12.842105 -25.768421 105 105 105 
10.334426 12.800000 -25.683935 105 105 105 
10.337663 12.675324 -25.433767 104 104 104 
10.322580 12.593549 -25.269678 104 104 104 
10.242038 12.433121 -24.947771 105 105 105 
10.260318 12.393651 -24.868572 105 105 105 
10.311111 12.393651 -24.868572 105 105 105 
10.329114 12.354430 -24.789873 105 105 105 
10.379746 12.354430 -24.789873 104 104 104 
10.430380 12.354430 -24.789873 104 104 104 
10.481012 12.354430 -24.789873 104 104 104 
10.531646 12.354430 -24.789873 104 104 104 
10.649681 12.433121 -24.947771 104 104 104 
10.700637 12.433121 -24.947771 104 104 104 
10.925567 12.634304 -25.351456 104 104 104 
11.121311 12.800000 -25.683935 104 104 104 
11.210526 12.842105 -25.768421 104 104 104 
11.375415 12.970099 -26.025249 104 104 104 
11.505016 13.056856 -26.199331 104 104 104 
11.715254 13.233898 -26.554577 104 104 104 
11.809524 13.278912 -26.644897 104 104 104 
11.863946 13.278912 -26.644897 104 104 104 
12.000000 13.369863 -26.827398 104 104 104 
12.096220 13.415808 -26.919588 104 104 104 
12.193104 13.462069 -27.012415 103 103 103 
12.290657 13.508651 -27.105883 103 103 103 
12.346021 13.508651 -27.105883 103 103 103 
12.401384 13.508651 -27.105883 103 103 103 
12.456747 13.508651 -27.105883 103 103 103 
12.555555 13.555555 -27.200001 103 103 103 
14.437500 15.250000 -30.600000 103 103 103 
14.500000 15.250000 -30.600000 103 103 103 
14.562500 15.250000 -30.600000 103 103 103 
14.625000 15.250000 -30.600000 103 103 103 
14.687500 15.250000 -30.600000 103 103 103 
14.750000 15.250000 -30.600000 102 102 102 
14.812500 15.250000 -30.600000 102 102 102 
14.875000 15.250000 -30.600000 102 102 102 
14.937500 15.250000 -30.600000 102 102 102 
15.000000 15.250000 -30.600000 102 102 102 
15.062500 15.250000 -30.600000 102 102 102 
15.125000 15.250000 -30.600000 102 102 102 
15.187500 15.250000 -30.600000 102 102 102 
15.250000 15.250000 -30.600000 102 102 102 
15.312500 15.250000 -30.600000 101 101 101 
15.375000 15.250000 -30.600000 101 101 101 
15.437500 15.250000 -30.600000 101 101 101 
15.500000 15.250000 -30.600000 102 102 102 
15.562500 15.250000 -30.600000 102 102 102 
15.625000 15.250000 -30.600000 101 101 101 
15.687500 15.250000 -30.600000 101 101 101 
15.750000 15.250000 -30.600000 101 101 101 
15.812500 15.250000 -30.600000 100 100 100 
15.875000 15.250000 -30.600000 101 101 101 
15.937500 15.250000 -30.600000 101 101 101 
16.000000 15.250000 -30.600000 101 101 101 
16.062500 15.250000 -30.600000 101 101 101 
16.125000 15.250000 -30.600000 100 100 100 
16.187500 15.250000 -30.600000 101 101 101 
16.250000 15.250000 -30.600000 100 100 100 
16.312500 15.250000 -30.600000 100 100 100 
16.375000 15.250000 -30.600000 100 100 100 
16.437500 15.250000 -30.600000 100 100 100 
16.500000 15.250000 -30.600000 99 99 99 
16.562500 15.250000 -30.600000 99 99 99 
16.625000 15.250000 -30.600000 99 99 99 
16.687500 15.250000 -30.600000 100 100 100 
16.181131 14.732076 -29.560755 99 99 99 
16.119850 14.621723 -29.339327 100 100 100 
16.179775 14.621723 -29.339327 100 100 100 
16.239700 14.621723 -29.339327 99 99 99 
16.360903 14.676692 -29.449625 99 99 99 
16.359550 14.621723 -29.339327 99 99 99 
16.419476 14.621723 -29.339327 99 99 99 
16.296297 14.459259 -29.013334 98 98 98 
16.355556 14.459259 -29.013334 99 99 99 
16.414814 14.459259 -29.013334 98 98 98 
16.474073 14.459259 -29.013334 98 98 98 
16.472324 14.405904 -28.906273 98 98 98 
16.470589 14.352942 -28.800001 98 98 98 
16.468864 14.300366 -28.694506 98 98 98 
16.467154 14.248176 -28.589781 98 98 98 
16.525547 14.248176 -28.589781 98 98 98 
16.583942 14.248176 -28.589781 97 97 97 
16.703297 14.300366 -28.694506 97 97 97 
16.823530 14.352942 -28.800001 97 97 97 
16.882353 14.352942 -28.800001 97 97 97 
16.879122 14.300366 -28.694506 97 97 97 
16.937729 14.300366 -28.694506 96 96 96 
16.996338 14.300366 -28.694506 97 97 97 
16.992701 14.248176 -28.589781 96 96 96 
16.989090 14.196363 -28.485819 96 96 96 
16.985508 14.144928 -28.382608 96 96 96 
16.860214 13.992831 -28.077419 96 96 96 
16.797153 13.893238 -27.877581 96 96 96 
16.794327 13.843971 -27.778725 95 95 95 
17.032259 13.992831 -28.077419 95 95 95 
17.465202 14.300366 -28.694506 94 94 94 
-1.441441 2.189189 -4.410811 109 109 109 
-1.432432 2.189189 -4.410811 108 108 108 
-1.423423 2.189189 -4.410811 108 108 108 
-1.414414 2.189189 -4.410811 108 108 108 
-1.405405 2.189189 -4.410811 109 109 109 
-1.396396 2.189189 -4.410811 109 109 109 
-1.387387 2.189189 -4.410811 108 108 108 
-1.378378 2.189189 -4.410811 108 108 108 
-0.866628 2.264415 -4.562376 110 110 110 
-0.856312 2.261780 -4.557068 110 110 110 
-0.845528 2.257840 -4.549129 110 110 110 
-0.835752 2.256529 -4.546489 110 110 110 
-0.826465 2.256529 -4.546489 110 110 110 
-0.816232 2.253913 -4.541217 110 110 110 
-0.806957 2.253913 -4.541217 111 111 111 
-0.797219 2.252607 -4.538587 111 111 111 
-0.787949 2.252607 -4.538587 111 111 111 
-0.778228 2.251303 -4.535958 111 111 111 
-0.768964 2.251303 -4.535958 111 111 111 
-0.760139 2.252607 -4.538587 111 111 111 
-0.750434 2.251303 -4.535958 111 111 111 
-0.741170 2.251303 -4.535958 111 111 111 
-0.731905 2.251303 -4.535958 111 111 111 
-0.722222 2.250000 -4.533333 112 112 112 
-0.712963 2.250000 -4.533333 111 111 111 
-0.703704 2.250000 -4.533333 111 111 111 
-0.644419 2.237054 -4.507250 111 111 111 
-0.590883 2.243508 -4.520254 111 111 111 
-0.579310 2.234483 -4.502069 111 111 111 
-0.570115 2.234483 -4.502069 111 111 111 
-0.561242 2.235768 -4.504658 111 111 111 
-0.552041 2.235768 -4.504658 111 111 111 
-0.024115 2.929917 -5.903241 112 112 112 
-0.012048 2.927711 -5.898795 112 112 112 
0.000000 2.927711 -5.898795 112 112 112 
0.012048 2.927711 -5.898795 112 112 112 
0.024096 2.927711 -5.898795 112 112 112 
0.036145 2.927711 -5.898795 112 112 112 
0.048157 2.925508 -5.894357 112 112 112 
0.060196 2.925508 -5.894357 112 112 112 
0.072235 2.925508 -5.894357 112 112 112 
0.084274 2.925508 -5.894357 111 111 111 
0.096313 2.925508 -5.894357 111 111 111 
0.204800 3.110400 -6.266880 112 112 112 
0.217600 3.110400 -6.266880 112 112 112 
0.230400 3.110400 -6.266880 112 112 112 
0.243200 3.110400 -6.266880 112 112 112 
0.256000 3.110400 -6.266880 111 111 111 
0.269015 3.112890 -6.271898 111 111 111 
0.281825 3.112890 -6.271898 112 112 112 
0.320917 2.228080 -4.489169 112 112 112 
0.330086 2.228080 -4.489169 111 111 111 
0.339255 2.228080 -4.489169 111 111 111 
0.348225 2.226804 -4.486598 112 112 112 
0.357388 2.226804 -4.486598 111 111 111 
0.366762 2.228080 -4.489169 111 111 111 
0.375931 2.228080 -4.489169 111 111 111 
0.385321 2.229358 -4.491743 111 111 111 
0.394044 2.226804 -4.486598 112 112 112 
0.402977 2.225529 -4.484030 112 112 112 
0.412135 2.225529 -4.484030 111 111 111 
0.421053 2.224256 -4.481464 111 111 111 
0.430452 2.225529 -4.484030 111 111 111 
1.193182 2.761364 -5.563636 109 109 109 
1.204545 2.761364 -5.563636 109 109 109 
1.215046 2.759404 -5.559688 108 108 108 
1.225532 2.757447 -5.555745 109 109 109 
1.236879 2.757447 -5.555745 109 109 109 
1.248227 2.757447 -5.555745 109 109 109 
1.259574 2.757447 -5.555745 109 109 109 
1.271824 2.759404 -5.559688 108 108 108 
1.282269 2.757447 -5.555745 109 109 109 
1.293617 2.757447 -5.555745 110 110 110 
1.304965 2.757447 -5.555745 109 109 109 
1.317246 2.759404 -5.559688 108 108 108 
5.693837 7.729622 -15.573758 106 106 106 
5.702971 7.699010 -15.512079 106 106 106 
5.723320 7.683794 -15.481423 106 106 106 
5.743590 7.668639 -15.450888 106 106 106 
5.775148 7.668639 -15.450888 106 106 106 
5.818182 7.683794 -15.481423 106 106 106 
9.673203 12.705882 -25.600000 106 106 106 
10.039216 12.705882 -25.600000 106 106 106 
10.058632 12.664495 -25.516613 105 105 105 
10.045307 12.582524 -25.351456 105 105 105 
10.064516 12.541936 -25.269678 105 105 105 
10.181818 12.623377 -25.433767 106 106 106 
10.237942 12.501608 -25.188425 105 105 105 
10.191083 12.382166 -24.947771 105 105 105 
10.209524 12.342857 -24.868572 105 105 105 
10.260318 12.342857 -24.868572 105 105 105 
10.278481 12.303798 -24.789873 105 105 105 
10.329114 12.303798 -24.789873 104 104 104 
10.379746 12.303798 -24.789873 105 105 105 
10.430380 12.303798 -24.789873 104 104 104 
10.481012 12.303798 -24.789873 104 104 104 
10.531646 12.303798 -24.789873 105 105 105 
10.582278 12.303798 -24.789873 105 105 105 
10.700637 12.382166 -24.947771 104 104 104 
10.996742 12.664495 -25.516613 105 105 105 
11.157895 12.789474 -25.768421 105 105 105 
11.210526 12.789474 -25.768421 105 105 105 
11.375415 12.916944 -26.025249 105 105 105 
11.505016 13.003345 -26.199331 104 104 104 
11.755102 13.224490 -26.644897 104 104 104 
11.809524 13.224490 -26.644897 103 103 103 
11.863946 13.224490 -26.644897 103 103 103 
12.000000 13.315068 -26.827398 103 103 103 
12.137931 13.406897 -27.012415 103 103 103 
12.235294 13.453287 -27.105883 104 104 104 
12.333333 13.500000 -27.200001 104 104 104 
12.388889 13.500000 -27.200001 104 104 104 
12.444445 13.500000 -27.200001 103 103 103 
12.500000 13.500000 -27.200001 103 103 103 
14.375000 15.187500 -30.600000 103 103 103 
14.437500 15.187500 -30.600000 103 103 103 
14.500000 15.187500 -30.600000 104 104 104 
14.562500 15.187500 -30.600000 104 104 104 
14.625000 15.187500 -30.600000 103 103 103 
14.687500 15.187500 -30.600000 103 103 103 
14.750000 15.187500 -30.600000 103 103 103 
14.812500 15.187500 -30.600000 103 103 103 
14.875000 15.187500 -30.600000 103 103 103 
14.937500 15.187500 -30.600000 103 103 103 
15.000000 15.187500 -30.600000 103 103 103 
15.062500 15.187500 -30.600000 102 102 102 
15.125000 15.187500 -30.600000 102 102 102 
15.187500 15.187500 -30.600000 102 102 102 
15.250000 15.187500 -30.600000 102 102 102 
15.312500 15.187500 -30.600000 101 101 101 
15.375000 15.187500 -30.600000 102 102 102 
15.437500 15.187500 -30.600000 102 102 102 
15.500000 15.187500 -30.600000 103 103 103 
15.562500 15.187500 -30.600000 102 102 102 
15.625000 15.187500 -30.600000 102 102 102 
15.687500 15.187500 -30.600000 102 102 102 
15.750000 15.187500 -30.600000 101 101 101 
15.812500 15.187500 -30.600000 102 102 102 
15.875000 15.187500 -30.600000 102 102 102 
15.937500 15.187500 -30.600000 101 101 101 
16.000000 15.187500 -30.600000 101 101 101 
16.062500 15.187500 -30.600000 101 101 101 
16.125000 15.187500 -30.600000 101 101 101 
16.187500 15.187500 -30.600000 101 101 101 
16.250000 15.187500 -30.600000 101 101 101 
16.312500 15.187500 -30.600000 101 101 101 
16.375000 15.187500 -30.600000 101 101 101 
16.437500 15.187500 -30.600000 100 100 100 
16.500000 15.187500 -30.600000 100 100 100 
16.562500 15.187500 -30.600000 99 99 99 
16.625000 15.187500 -30.600000 100 100 100 
16.687500 15.187500 -30.600000 100 100 100 
16.059925 14.561798 -29.339327 100 100 100 
16.059702 14.507463 -29.229851 100 100 100 
16.179775 14.561798 -29.339327 100 100 100 
16.179104 14.507463 -29.229851 100 100 100 
16.360903 14.616541 -29.449625 100 100 100 
16.359550 14.561798 -29.339327 100 100 100 
16.297398 14.453531 -29.121189 100 100 100 
16.296297 14.400000 -29.013334 99 99 99 
16.235294 14.294118 -28.800001 99 99 99 
16.414814 14.400000 -29.013334 99 99 99 
16.413284 14.346864 -28.906273 99 99 99 
16.411764 14.294118 -28.800001 99 99 99 
16.410257 14.241758 -28.694506 98 98 98 
16.408760 14.189781 -28.589781 98 98 98 
16.467154 14.189781 -28.589781 98 98 98 
16.525547 14.189781 -28.589781 97 97 97 
16.583942 14.189781 -28.589781 98 98 98 
16.703297 14.241758 -28.694506 98 98 98 
16.823530 14.294118 -28.800001 97 97 97 
16.882353 14.294118 -28.800001 97 97 97 
16.941177 14.294118 -28.800001 98 98 98 
16.937729 14.241758 -28.694506 98 98 98 
16.996338 14.241758 -28.694506 97 97 97 
17.054945 14.241758 -28.694506 97 97 97 
17.051094 14.189781 -28.589781 97 97 97 
17.047274 14.138182 -28.485819 96 96 96 
17.043478 14.086957 -28.382608 97 97 97 
16.917562 13.935484 -28.077419 95 95 95 
16.974911 13.935484 -28.077419 95 95 95 
17.280001 14.138182 -28.485819 96 96 96 
17.465202 14.241758 -28.694506 95 95 95 
-1.441441 2.180180 -4.410811 109 109 109 
-1.432432 2.180180 -4.410811 108 108 108 
-1.423423 2.180180 -4.410811 109 109 109 
-1.414414 2.180180 -4.410811 109 109 109 
-1.405405 2.180180 -4.410811 109 109 109 
-1.396396 2.180180 -4.410811 110 110 110 
-1.387387 2.180180 -4.410811 109 109 109 
-1.378378 2.180180 -4.410811 109 109 109 
-1.369369 2.180180 -4.410811 109 109 109 
-0.864111 2.248548 -4.549129 111 111 111 
-0.854820 2.248548 -4.549129 111 111 111 
-0.844548 2.245940 -4.543851 111 111 111 
-0.834783 2.244638 -4.541217 111 111 111 
-0.825507 2.244638 -4.541217 110 110 110 
-0.815759 2.243337 -4.538587 111 111 111 
-0.806489 2.243337 -4.538587 112 112 112 
-0.796757 2.242038 -4.535958 111 111 111 
-0.787493 2.242038 -4.535958 111 111 111 
-0.778228 2.242038 -4.535958 111 111 111 
-0.768964 2.242038 -4.535958 111 111 111 
-0.759699 2.242038 -4.535958 111 111 111 
-0.750434 2.242038 -4.535958 111 111 111 
-0.741170 2.242038 -4.535958 110 110 110 
-0.731905 2.242038 -4.535958 111 111 111 
-0.722640 2.242038 -4.535958 112 112 112 
-0.712963 2.240741 -4.533333 111 111 111 
-0.703704 2.240741 -4.533333 111 111 111 
-0.694847 2.242038 -4.535958 111 111 111 
-0.647025 2.236857 -4.525476 111 111 111 
-0.637782 2.236857 -4.525476 111 111 111 
-0.628175 2.235566 -4.522864 110 110 110 
-0.619295 2.236857 -4.525476 110 110 110 
-0.609700 2.235566 -4.522864 111 111 111 
-0.600462 2.235566 -4.522864 112 112 112 
-0.590883 2.234276 -4.520254 112 112 112 
-0.580645 2.230415 -4.512443 111 111 111 
-0.571100 2.229131 -4.509845 111 111 111 
-0.561242 2.226567 -4.504658 111 111 111 
-0.552041 2.226567 -4.504658 111 111 111 
-0.543779 2.230415 -4.512443 112 112 112 
-0.012057 2.917860 -5.903241 112 112 112 
0.000000 2.915663 -5.898795 112 112 112 
0.012048 2.915663 -5.898795 112 112 112 
0.024078 2.913469 -5.894357 112 112 112 
0.036117 2.913469 -5.894357 112 112 112 
0.048157 2.913469 -5.894357 113 113 113 
0.060196 2.913469 -5.894357 113 113 113 
0.072235 2.913469 -5.894357 112 112 112 
0.084274 2.913469 -5.894357 112 112 112 
0.096313 2.913469 -5.894357 113 113 113 
0.217600 3.097600 -6.266880 112 112 112 
0.230400 3.097600 -6.266880 112 112 112 
0.243200 3.097600 -6.266880 112 112 112 
0.256000 3.097600 -6.266880 112 112 112 
0.268800 3.097600 -6.266880 112 112 112 
0.281825 3.100080 -6.271898 112 112 112 
0.311748 2.218911 -4.489169 112 112 112 
0.320917 2.218911 -4.489169 112 112 112 
0.330086 2.218911 -4.489169 112 112 112 
0.357388 2.217640 -4.486598 112 112 112 
0.366342 2.216371 -4.484030 111 111 111 
0.375501 2.216371 -4.484030 112 112 112 
0.384659 2.216371 -4.484030 111 111 111 
0.393818 2.216371 -4.484030 112 112 112 
0.402977 2.216371 -4.484030 112 112 112 
0.411429 2.212571 -4.476343 112 112 112 
0.420571 2.212571 -4.476343 111 111 111 
0.430452 2.216371 -4.484030 112 112 112 
1.225532 2.746099 -5.555745 110 110 110 
1.236879 2.746099 -5.555745 109 109 109 
1.248227 2.746099 -5.555745 110 110 110 
1.259574 2.746099 -5.555745 111 111 111 
1.271824 2.748048 -5.559688 110 110 110 
1.283180 2.748048 -5.559688 110 110 110 
1.294535 2.748048 -5.559688 110 110 110 
1.305891 2.748048 -5.559688 110 110 110 
